ply
format ascii 1.0
element vertex 1479
property float x
property float y
property float z
end_header
-260.816214 -31.668823 380.000000
-268.487279 -32.600259 379.000000
-276.158344 -33.531695 378.000000
-283.829409 -34.463131 377.000000
-276.158344 -33.531695 380.000000
-287.664942 -34.928849 378.000000
-295.336007 -35.860285 377.000000
-303.007072 -36.791721 376.000000
-310.678137 -37.723157 375.000000
-303.007072 -36.791721 378.000000
-314.513670 -38.188875 376.000000
-322.184735 -39.120311 375.000000
-329.855800 -40.051747 373.000000
-337.526865 -40.983183 372.000000
-345.197930 -41.914619 371.000000
100.456286 0.000001 144.000000
92.728879 0.000000 144.000000
88.865176 0.000000 145.000000
85.001473 0.000000 146.000000
81.137769 0.000000 147.000000
77.274066 0.000000 148.000000
69.546660 0.000000 147.000000
77.274066 0.000000 150.000000
69.546660 0.000000 149.000000
65.682956 0.000000 150.000000
61.819253 0.000000 151.000000
57.955550 0.000000 152.000000
54.091846 0.000000 153.000000
61.819253 0.000000 156.000000
54.091846 0.000000 155.000000
46.364440 0.000000 154.000000
54.091846 0.000000 157.000000
46.364440 0.000000 156.000000
42.500736 0.000000 157.000000
38.637033 0.000000 158.000000
46.364440 0.000000 161.000000
34.773330 0.000000 159.000000
34.773330 0.000000 161.000000
27.045923 0.000000 160.000000
34.773330 0.000000 163.000000
27.045923 0.000000 162.000000
19.318517 0.000000 161.000000
27.045923 0.000000 164.000000
19.318517 0.000000 163.000000
27.045923 0.000000 166.000000
19.318517 0.000000 165.000000
11.591110 0.000000 164.000000
19.318517 0.000000 167.000000
11.591110 0.000000 166.000000
19.318517 0.000000 169.000000
7.727407 0.000000 167.000000
15.454813 0.000000 170.000000
7.727407 0.000000 169.000000
-0.000000 -0.000000 168.000000
7.727407 0.000000 171.000000
-0.000000 -0.000000 170.000000
7.727407 0.000000 173.000000
-0.000000 -0.000000 172.000000
-7.727407 -0.000000 171.000000
-0.000000 -0.000000 174.000000
-7.727407 -0.000000 173.000000
-0.000000 -0.000000 176.000000
-7.727407 -0.000000 175.000000
-0.000000 -0.000000 178.000000
-7.727407 -0.000000 177.000000
-11.591110 -0.000000 177.000000
-7.727407 -0.000000 179.000000
-11.591110 -0.000000 179.000000
-19.318517 -0.000000 178.000000
-11.591110 -0.000000 181.000000
-19.318517 -0.000000 180.000000
-11.591110 -0.000000 183.000000
-19.318517 -0.000000 182.000000
-27.045923 -0.000000 181.000000
-19.318517 -0.000000 184.000000
-27.045923 -0.000000 183.000000
-34.773330 -0.000000 182.000000
-27.045923 -0.000000 185.000000
-34.773330 -0.000000 184.000000
-42.500736 -0.000000 183.000000
-34.773330 -0.000000 186.000000
-42.500736 -0.000000 185.000000
-34.773330 -0.000000 188.000000
-42.500736 -0.000000 187.000000
-50.228143 -0.000000 186.000000
-42.500736 -0.000000 189.000000
-50.228143 -0.000000 188.000000
-57.955550 -0.000000 187.000000
-50.228143 -0.000000 190.000000
-57.955550 -0.000000 189.000000
-65.682956 -0.000000 188.000000
-57.955550 -0.000000 191.000000
-65.682956 -0.000000 190.000000
-57.955550 -0.000000 193.000000
-65.682956 -0.000000 192.000000
-73.410363 -0.000000 191.000000
-65.682956 -0.000000 194.000000
-73.410363 -0.000000 193.000000
-81.137769 -0.000000 192.000000
-73.410363 -0.000000 195.000000
-81.137769 -0.000000 194.000000
-88.865176 -0.000000 193.000000
-81.137769 -0.000000 196.000000
-88.865176 -0.000000 195.000000
-81.137769 -0.000000 198.000000
-88.865176 -0.000000 197.000000
-96.592583 -0.000001 196.000000
-88.865176 -0.000000 199.000000
-96.592583 -0.000001 198.000000
-88.865176 -0.000000 201.000000
-96.592583 -0.000001 200.000000
-104.319989 -0.000001 199.000000
-96.592583 -0.000001 202.000000
-104.319989 -0.000001 201.000000
-112.047396 -0.000001 199.000000
-104.319989 -0.000001 203.000000
-112.047396 -0.000001 201.000000
-104.319989 -0.000001 205.000000
-112.047396 -0.000001 203.000000
-104.319989 -0.000001 207.000000
-112.047396 -0.000001 205.000000
-119.774803 -0.000001 204.000000
-112.047396 -0.000001 207.000000
-119.774803 -0.000001 206.000000
-123.638506 -0.000001 206.000000
-115.911099 -0.000001 209.000000
-123.638506 -0.000001 208.000000
-115.911099 -0.000001 211.000000
-123.638506 -0.000001 210.000000
-127.502209 -0.000001 210.000000
-142.957022 -0.000001 207.000000
-146.820726 -0.000001 207.000000
-142.957022 -0.000001 209.000000
-150.684429 -0.000001 208.000000
-146.820726 -0.000001 210.000000
-154.548132 -0.000001 209.000000
-150.684429 -0.000001 211.000000
-158.411836 -0.000001 210.000000
-154.548132 -0.000001 212.000000
-162.275539 -0.000001 211.000000
-158.411836 -0.000001 213.000000
-166.139242 -0.000001 212.000000
-170.002946 -0.000001 212.000000
-166.139242 -0.000001 214.000000
-173.866649 -0.000001 213.000000
-166.139242 -0.000001 216.000000
-177.730352 -0.000001 214.000000
-181.594056 -0.000001 214.000000
-177.730352 -0.000001 216.000000
-185.457759 -0.000001 215.000000
-177.730352 -0.000001 218.000000
-185.457759 -0.000001 217.000000
-193.185165 -0.000001 216.000000
-185.457759 -0.000001 219.000000
-193.185165 -0.000001 218.000000
-200.912572 -0.000001 217.000000
-193.185165 -0.000001 220.000000
-200.912572 -0.000001 219.000000
-204.776275 -0.000001 219.000000
-200.912572 -0.000001 221.000000
-208.639979 -0.000001 220.000000
-212.503682 -0.000001 220.000000
-208.639979 -0.000001 222.000000
-216.367385 -0.000001 221.000000
-208.639979 -0.000001 224.000000
-216.367385 -0.000001 223.000000
-220.231089 -0.000001 222.000000
-224.094792 -0.000001 222.000000
-220.231089 -0.000001 224.000000
-227.958495 -0.000001 223.000000
-220.231089 -0.000001 226.000000
-227.958495 -0.000001 225.000000
-235.685902 -0.000001 224.000000
-227.958495 -0.000001 227.000000
-235.685902 -0.000001 226.000000
-227.958495 -0.000001 229.000000
-235.685902 -0.000001 228.000000
-243.413308 -0.000001 227.000000
-235.685902 -0.000001 230.000000
-243.413308 -0.000001 229.000000
-235.685902 -0.000001 232.000000
-243.413308 -0.000001 231.000000
-251.140715 -0.000001 230.000000
-243.413308 -0.000001 233.000000
-251.140715 -0.000001 232.000000
-243.413308 -0.000001 235.000000
-255.004418 -0.000001 233.000000
-247.277012 -0.000001 236.000000
-255.004418 -0.000001 235.000000
-262.731825 -0.000001 234.000000
-255.004418 -0.000001 237.000000
-262.731825 -0.000001 236.000000
-255.004418 -0.000001 239.000000
-262.731825 -0.000001 238.000000
-270.459232 -0.000001 237.000000
-262.731825 -0.000001 240.000000
-270.459232 -0.000001 239.000000
-262.731825 -0.000001 242.000000
-270.459232 -0.000001 241.000000
-278.186638 -0.000001 240.000000
-270.459232 -0.000001 243.000000
-278.186638 -0.000001 242.000000
-270.459232 -0.000001 245.000000
-278.186638 -0.000001 244.000000
-285.914045 -0.000002 243.000000
-278.186638 -0.000001 246.000000
-285.914045 -0.000002 245.000000
-278.186638 -0.000001 248.000000
-285.914045 -0.000002 247.000000
-278.186638 -0.000001 250.000000
-285.914045 -0.000002 249.000000
-293.641452 -0.000002 248.000000
-285.914045 -0.000002 251.000000
-293.641452 -0.000002 250.000000
-285.914045 -0.000002 253.000000
-293.641452 -0.000002 252.000000
-285.914045 -0.000002 255.000000
-297.505155 -0.000002 253.000000
-289.777748 -0.000002 256.000000
-297.505155 -0.000002 255.000000
-305.232561 -0.000002 254.000000
-297.505155 -0.000002 257.000000
-305.232561 -0.000002 256.000000
-297.505155 -0.000002 259.000000
-305.232561 -0.000002 258.000000
-297.505155 -0.000002 261.000000
-305.232561 -0.000002 260.000000
-297.505155 -0.000002 263.000000
-305.232561 -0.000002 262.000000
-312.959968 -0.000002 261.000000
-305.232561 -0.000002 264.000000
-312.959968 -0.000002 263.000000
-305.232561 -0.000002 266.000000
-312.959968 -0.000002 265.000000
-305.232561 -0.000002 268.000000
-312.959968 -0.000002 267.000000
-305.232561 -0.000002 270.000000
-312.959968 -0.000002 269.000000
-305.232561 -0.000002 272.000000
-312.959968 -0.000002 271.000000
-305.232561 -0.000002 274.000000
-312.959968 -0.000002 273.000000
-320.687375 -0.000002 272.000000
-312.959968 -0.000002 275.000000
-320.687375 -0.000002 274.000000
-312.959968 -0.000002 277.000000
-320.687375 -0.000002 276.000000
-312.959968 -0.000002 279.000000
-320.687375 -0.000002 278.000000
-312.959968 -0.000002 281.000000
-320.687375 -0.000002 280.000000
-312.959968 -0.000002 283.000000
-320.687375 -0.000002 282.000000
-312.959968 -0.000002 285.000000
-320.687375 -0.000002 284.000000
-312.959968 -0.000002 287.000000
-320.687375 -0.000002 286.000000
-312.959968 -0.000002 289.000000
-320.687375 -0.000002 288.000000
-312.959968 -0.000002 291.000000
-305.232561 -0.000002 294.000000
-312.959968 -0.000002 293.000000
-305.232561 -0.000002 296.000000
-312.959968 -0.000002 295.000000
-305.232561 -0.000002 298.000000
-312.959968 -0.000002 297.000000
-305.232561 -0.000002 300.000000
-312.959968 -0.000002 299.000000
-305.232561 -0.000002 302.000000
-312.959968 -0.000002 301.000000
-305.232561 -0.000002 304.000000
-227.958495 -0.000001 330.000000
-220.231089 -0.000001 333.000000
-227.958495 -0.000001 332.000000
-220.231089 -0.000001 335.000000
-227.958495 -0.000001 334.000000
-220.231089 -0.000001 337.000000
-224.094792 -0.000001 337.000000
-216.367385 -0.000001 341.000000
-224.094792 -0.000001 339.000000
-216.367385 -0.000001 343.000000
-224.094792 -0.000001 341.000000
-216.367385 -0.000001 345.000000
-212.503682 -0.000001 347.000000
-220.231089 -0.000001 345.000000
-212.503682 -0.000001 349.000000
-216.367385 -0.000001 349.000000
-208.639979 -0.000001 352.000000
-216.367385 -0.000001 351.000000
-208.639979 -0.000001 354.000000
-204.776275 -0.000001 356.000000
-208.639979 -0.000001 356.000000
-200.912572 -0.000001 359.000000
-208.639979 -0.000001 358.000000
-200.912572 -0.000001 361.000000
-162.275539 -0.000001 372.000000
-150.684429 -0.000001 376.000000
-142.957022 -0.000001 379.000000
-135.229616 -0.000001 382.000000
-100.456286 -0.000001 393.000000
-108.183693 -0.000001 392.000000
-100.456286 -0.000001 395.000000
-108.183693 -0.000001 394.000000
-115.911099 -0.000001 392.000000
-123.638506 -0.000001 391.000000
-131.365913 -0.000001 390.000000
-123.638506 -0.000001 393.000000
-135.229616 -0.000001 391.000000
-142.957022 -0.000001 390.000000
-150.684429 -0.000001 389.000000
-158.411836 -0.000001 388.000000
-150.684429 -0.000001 391.000000
-162.275539 -0.000001 389.000000
-170.002946 -0.000001 388.000000
-177.730352 -0.000001 387.000000
-185.457759 -0.000001 386.000000
-177.730352 -0.000001 389.000000
-189.321462 -0.000001 387.000000
-197.048869 -0.000001 386.000000
-204.776275 -0.000001 385.000000
-212.503682 -0.000001 384.000000
-204.776275 -0.000001 387.000000
-216.367385 -0.000001 385.000000
-224.094792 -0.000001 383.000000
-231.822199 -0.000001 382.000000
-239.549605 -0.000001 381.000000
-231.822199 -0.000001 384.000000
-243.413308 -0.000001 382.000000
-251.140715 -0.000001 381.000000
-258.868122 -0.000001 380.000000
-266.595528 -0.000001 379.000000
-258.868122 -0.000001 382.000000
-270.459232 -0.000001 380.000000
-278.186638 -0.000001 379.000000
-285.914045 -0.000002 378.000000
-293.641452 -0.000002 377.000000
-285.914045 -0.000002 380.000000
-297.505155 -0.000002 378.000000
-305.232561 -0.000002 377.000000
-312.959968 -0.000002 376.000000
-320.687375 -0.000002 375.000000
-328.414781 -0.000002 374.000000
-320.687375 -0.000002 377.000000
-332.278485 -0.000002 374.000000
-340.005891 -0.000002 373.000000
88.217249 -10.711513 145.000000
84.381716 -10.245795 146.000000
80.546184 -9.780077 147.000000
72.875119 -8.848641 146.000000
69.039586 -8.382923 147.000000
65.204054 -7.917205 148.000000
61.368521 -7.451487 149.000000
57.532988 -6.985769 150.000000
53.697456 -6.520051 151.000000
53.697456 -6.520051 153.000000
46.026391 -5.588615 152.000000
53.697456 -6.520051 155.000000
46.026391 -5.588615 154.000000
53.697456 -6.520051 157.000000
42.190858 -5.122897 155.000000
38.355326 -4.657179 156.000000
46.026391 -5.588615 159.000000
38.355326 -4.657179 158.000000
30.684261 -3.725744 157.000000
38.355326 -4.657179 160.000000
30.684261 -3.725744 159.000000
23.013195 -2.794308 158.000000
30.684261 -3.725744 161.000000
23.013195 -2.794308 160.000000
30.684261 -3.725744 163.000000
23.013195 -2.794308 162.000000
15.342130 -1.862872 161.000000
23.013195 -2.794308 164.000000
15.342130 -1.862872 163.000000
23.013195 -2.794308 166.000000
15.342130 -1.862872 165.000000
7.671065 -0.931436 164.000000
15.342130 -1.862872 167.000000
7.671065 -0.931436 166.000000
15.342130 -1.862872 169.000000
7.671065 -0.931436 168.000000
-0.000000 0.000000 167.000000
7.671065 -0.931436 170.000000
-0.000000 0.000000 169.000000
7.671065 -0.931436 172.000000
-0.000000 0.000000 171.000000
-7.671065 0.931436 170.000000
-0.000000 0.000000 173.000000
-7.671065 0.931436 172.000000
-0.000000 0.000000 175.000000
-7.671065 0.931436 174.000000
-0.000000 0.000000 177.000000
-7.671065 0.931436 176.000000
-0.000000 0.000000 179.000000
-7.671065 0.931436 178.000000
-15.342130 1.862872 177.000000
-7.671065 0.931436 180.000000
-15.342130 1.862872 179.000000
-7.671065 0.931436 182.000000
-15.342130 1.862872 181.000000
-23.013195 2.794308 180.000000
-15.342130 1.862872 183.000000
-23.013195 2.794308 182.000000
-30.684261 3.725744 181.000000
-23.013195 2.794308 184.000000
-30.684261 3.725744 183.000000
-38.355326 4.657179 182.000000
-30.684261 3.725744 185.000000
-38.355326 4.657179 184.000000
-30.684261 3.725744 187.000000
-38.355326 4.657179 186.000000
-46.026391 5.588615 185.000000
-38.355326 4.657179 188.000000
-46.026391 5.588615 187.000000
-53.697456 6.520051 186.000000
-46.026391 5.588615 189.000000
-53.697456 6.520051 188.000000
-46.026391 5.588615 191.000000
-53.697456 6.520051 190.000000
-61.368521 7.451487 189.000000
-53.697456 6.520051 192.000000
-61.368521 7.451487 191.000000
-53.697456 6.520051 194.000000
-61.368521 7.451487 193.000000
-69.039586 8.382923 192.000000
-61.368521 7.451487 195.000000
-69.039586 8.382923 194.000000
-61.368521 7.451487 197.000000
-69.039586 8.382923 196.000000
-76.710651 9.314359 195.000000
-69.039586 8.382923 198.000000
-76.710651 9.314359 197.000000
-84.381716 10.245795 196.000000
-76.710651 9.314359 199.000000
-84.381716 10.245795 198.000000
-76.710651 9.314359 201.000000
-84.381716 10.245795 200.000000
-92.052782 11.177231 199.000000
-84.381716 10.245795 202.000000
-92.052782 11.177231 201.000000
-84.381716 10.245795 204.000000
-92.052782 11.177231 203.000000
-99.723847 12.108667 202.000000
-92.052782 11.177231 205.000000
-99.723847 12.108667 204.000000
-92.052782 11.177231 207.000000
-99.723847 12.108667 206.000000
-107.394912 13.040103 205.000000
-99.723847 12.108667 208.000000
-107.394912 13.040103 207.000000
-99.723847 12.108667 210.000000
-107.394912 13.040103 209.000000
-115.065977 13.971538 207.000000
-107.394912 13.040103 211.000000
-115.065977 13.971538 209.000000
-107.394912 13.040103 213.000000
-115.065977 13.971538 211.000000
-118.901510 14.437256 211.000000
-115.065977 13.971538 213.000000
-122.737042 14.902974 212.000000
-115.065977 13.971538 215.000000
-122.737042 14.902974 214.000000
-130.408107 15.834410 213.000000
-122.737042 14.902974 216.000000
-130.408107 15.834410 215.000000
-122.737042 14.902974 218.000000
-130.408107 15.834410 217.000000
-122.737042 14.902974 220.000000
-130.408107 15.834410 219.000000
-122.737042 14.902974 222.000000
-130.408107 15.834410 221.000000
-122.737042 14.902974 224.000000
-130.408107 15.834410 223.000000
-122.737042 14.902974 226.000000
-130.408107 15.834410 225.000000
-122.737042 14.902974 228.000000
-130.408107 15.834410 227.000000
-149.585770 18.163000 223.000000
-153.421303 18.628718 223.000000
-149.585770 18.163000 225.000000
-157.256835 19.094436 224.000000
-149.585770 18.163000 227.000000
-157.256835 19.094436 226.000000
-164.927900 20.025872 225.000000
-157.256835 19.094436 228.000000
-164.927900 20.025872 227.000000
-157.256835 19.094436 230.000000
-164.927900 20.025872 229.000000
-172.598965 20.957308 228.000000
-164.927900 20.025872 231.000000
-172.598965 20.957308 230.000000
-180.270031 21.888744 229.000000
-172.598965 20.957308 232.000000
-180.270031 21.888744 231.000000
-172.598965 20.957308 234.000000
-184.105563 22.354462 232.000000
-191.776628 23.285897 231.000000
-184.105563 22.354462 234.000000
-191.776628 23.285897 233.000000
-199.447693 24.217333 232.000000
-191.776628 23.285897 235.000000
-199.447693 24.217333 234.000000
-207.118758 25.148769 233.000000
-199.447693 24.217333 236.000000
-207.118758 25.148769 235.000000
-199.447693 24.217333 238.000000
-207.118758 25.148769 237.000000
-199.447693 24.217333 240.000000
-207.118758 25.148769 239.000000
-214.789824 26.080205 238.000000
-207.118758 25.148769 241.000000
-214.789824 26.080205 240.000000
-222.460889 27.011641 238.000000
-214.789824 26.080205 242.000000
-222.460889 27.011641 240.000000
-214.789824 26.080205 244.000000
-222.460889 27.011641 242.000000
-214.789824 26.080205 246.000000
-222.460889 27.011641 244.000000
-230.131954 27.943077 243.000000
-222.460889 27.011641 246.000000
-230.131954 27.943077 245.000000
-222.460889 27.011641 248.000000
-230.131954 27.943077 247.000000
-237.803019 28.874513 246.000000
-230.131954 27.943077 249.000000
-237.803019 28.874513 248.000000
-230.131954 27.943077 251.000000
-237.803019 28.874513 250.000000
-230.131954 27.943077 253.000000
-237.803019 28.874513 252.000000
-245.474084 29.805949 251.000000
-237.803019 28.874513 254.000000
-245.474084 29.805949 253.000000
-237.803019 28.874513 256.000000
-245.474084 29.805949 255.000000
-253.145149 30.737385 254.000000
-245.474084 29.805949 257.000000
-253.145149 30.737385 256.000000
-245.474084 29.805949 259.000000
-253.145149 30.737385 258.000000
-245.474084 29.805949 261.000000
-253.145149 30.737385 260.000000
-260.816214 31.668821 259.000000
-253.145149 30.737385 262.000000
-260.816214 31.668821 261.000000
-253.145149 30.737385 264.000000
-260.816214 31.668821 263.000000
-253.145149 30.737385 266.000000
-264.651747 32.134538 264.000000
-256.980682 31.203103 267.000000
-264.651747 32.134538 266.000000
-256.980682 31.203103 269.000000
-264.651747 32.134538 268.000000
-272.322812 33.065974 267.000000
-264.651747 32.134538 270.000000
-272.322812 33.065974 269.000000
-264.651747 32.134538 272.000000
-272.322812 33.065974 271.000000
-264.651747 32.134538 274.000000
-272.322812 33.065974 273.000000
-279.993877 33.997410 272.000000
-272.322812 33.065974 275.000000
-279.993877 33.997410 274.000000
-272.322812 33.065974 277.000000
-279.993877 33.997410 276.000000
-272.322812 33.065974 279.000000
-279.993877 33.997410 278.000000
-272.322812 33.065974 281.000000
-279.993877 33.997410 280.000000
-272.322812 33.065974 283.000000
-279.993877 33.997410 282.000000
-287.664942 34.928846 281.000000
-279.993877 33.997410 284.000000
-287.664942 34.928846 283.000000
-279.993877 33.997410 286.000000
-287.664942 34.928846 285.000000
-279.993877 33.997410 288.000000
-287.664942 34.928846 287.000000
-279.993877 33.997410 290.000000
-287.664942 34.928846 289.000000
-279.993877 33.997410 292.000000
-287.664942 34.928846 291.000000
-279.993877 33.997410 294.000000
-287.664942 34.928846 293.000000
-279.993877 33.997410 296.000000
-287.664942 34.928846 295.000000
-279.993877 33.997410 298.000000
-287.664942 34.928846 297.000000
-279.993877 33.997410 300.000000
-287.664942 34.928846 299.000000
-279.993877 33.997410 302.000000
-287.664942 34.928846 301.000000
-279.993877 33.997410 304.000000
-287.664942 34.928846 303.000000
-279.993877 33.997410 306.000000
-287.664942 34.928846 305.000000
-279.993877 33.997410 308.000000
-287.664942 34.928846 307.000000
-279.993877 33.997410 310.000000
-287.664942 34.928846 309.000000
-279.993877 33.997410 312.000000
-287.664942 34.928846 311.000000
-279.993877 33.997410 314.000000
-287.664942 34.928846 313.000000
-279.993877 33.997410 316.000000
-287.664942 34.928846 315.000000
-279.993877 33.997410 318.000000
-276.158345 33.531692 320.000000
-279.993877 33.997410 320.000000
-272.322812 33.065974 323.000000
-276.158345 33.531692 323.000000
-268.487280 32.600256 326.000000
-276.158345 33.531692 325.000000
-268.487280 32.600256 328.000000
-276.158345 33.531692 327.000000
-268.487280 32.600256 330.000000
-203.283226 24.683051 349.000000
-195.612161 23.751615 352.000000
-203.283226 24.683051 351.000000
-195.612161 23.751615 354.000000
-203.283226 24.683051 353.000000
-195.612161 23.751615 356.000000
-199.447693 24.217333 356.000000
-191.776628 23.285897 359.000000
-199.447693 24.217333 358.000000
-191.776628 23.285897 361.000000
-184.105563 22.354462 364.000000
-176.434498 21.423026 367.000000
-184.105563 22.354462 366.000000
-172.598965 20.957308 370.000000
-157.256835 19.094436 375.000000
-153.421303 18.628718 377.000000
-138.079172 16.765846 382.000000
-130.408107 15.834410 385.000000
-138.079172 16.765846 384.000000
-130.408107 15.834410 387.000000
-138.079172 16.765846 386.000000
-130.408107 15.834410 389.000000
-138.079172 16.765846 388.000000
-130.408107 15.834410 391.000000
-138.079172 16.765846 390.000000
-145.750237 17.697282 389.000000
-138.079172 16.765846 392.000000
-153.421303 18.628718 389.000000
-161.092368 19.560154 388.000000
-153.421303 18.628718 391.000000
-164.927900 20.025872 389.000000
-172.598965 20.957308 388.000000
-180.270031 21.888744 387.000000
-172.598965 20.957308 390.000000
-187.941096 22.820180 387.000000
-195.612161 23.751615 386.000000
-203.283226 24.683051 385.000000
-195.612161 23.751615 388.000000
-207.118758 25.148769 386.000000
-214.789824 26.080205 385.000000
-222.460889 27.011641 383.000000
-230.131954 27.943077 382.000000
-222.460889 27.011641 385.000000
-233.967486 28.408795 383.000000
-241.638552 29.340231 382.000000
-249.309617 30.271667 381.000000
-256.980682 31.203103 380.000000
-249.309617 30.271667 383.000000
-260.816214 31.668821 381.000000
-268.487280 32.600256 380.000000
-276.158345 33.531692 379.000000
-283.829410 34.463128 378.000000
-276.158345 33.531692 381.000000
-287.664942 34.928846 379.000000
-295.336007 35.860282 378.000000
-303.007073 36.791718 377.000000
-310.678138 37.723154 376.000000
-303.007073 36.791718 379.000000
-314.513670 38.188872 377.000000
-322.184735 39.120308 376.000000
-329.855801 40.051744 374.000000
-337.526866 40.983180 373.000000
75.028622 -18.492894 147.000000
67.525760 -16.643605 147.000000
63.774329 -15.718960 148.000000
60.022898 -14.794315 149.000000
56.271467 -13.869671 150.000000
48.768605 -12.020381 149.000000
56.271467 -13.869671 152.000000
48.768605 -12.020381 151.000000
56.271467 -13.869671 154.000000
48.768605 -12.020381 153.000000
41.265742 -10.171092 152.000000
48.768605 -12.020381 155.000000
41.265742 -10.171092 154.000000
37.514311 -9.246447 155.000000
45.017173 -11.095736 158.000000
33.762880 -8.321802 156.000000
41.265742 -10.171092 159.000000
33.762880 -8.321802 158.000000
26.260018 -6.472513 157.000000
33.762880 -8.321802 160.000000
26.260018 -6.472513 159.000000
22.508587 -5.547868 160.000000
30.011449 -7.397158 163.000000
22.508587 -5.547868 162.000000
15.005724 -3.698579 161.000000
22.508587 -5.547868 164.000000
15.005724 -3.698579 163.000000
22.508587 -5.547868 166.000000
15.005724 -3.698579 165.000000
7.502862 -1.849289 164.000000
15.005724 -3.698579 167.000000
7.502862 -1.849289 166.000000
15.005724 -3.698579 169.000000
7.502862 -1.849289 168.000000
-0.000000 0.000000 167.000000
7.502862 -1.849289 170.000000
-0.000000 0.000000 169.000000
7.502862 -1.849289 172.000000
-0.000000 0.000000 171.000000
-7.502862 1.849289 170.000000
-0.000000 0.000000 173.000000
-7.502862 1.849289 172.000000
-0.000000 0.000000 175.000000
-7.502862 1.849289 174.000000
-0.000000 0.000000 177.000000
-3.751431 0.924645 177.000000
-7.502862 1.849289 177.000000
-0.000000 0.000000 180.000000
-7.502862 1.849289 179.000000
-15.005724 3.698579 178.000000
-7.502862 1.849289 181.000000
-15.005724 3.698579 180.000000
-22.508587 5.547868 179.000000
-15.005724 3.698579 182.000000
-22.508587 5.547868 181.000000
-30.011449 7.397158 180.000000
-22.508587 5.547868 183.000000
-30.011449 7.397158 182.000000
-22.508587 5.547868 185.000000
-30.011449 7.397158 184.000000
-37.514311 9.246447 183.000000
-30.011449 7.397158 186.000000
-37.514311 9.246447 185.000000
-30.011449 7.397158 188.000000
-37.514311 9.246447 187.000000
-45.017173 11.095736 186.000000
-37.514311 9.246447 189.000000
-45.017173 11.095736 188.000000
-37.514311 9.246447 191.000000
-45.017173 11.095736 190.000000
-52.520036 12.945026 189.000000
-45.017173 11.095736 192.000000
-52.520036 12.945026 191.000000
-45.017173 11.095736 194.000000
-52.520036 12.945026 193.000000
-60.022898 14.794315 192.000000
-52.520036 12.945026 195.000000
-60.022898 14.794315 194.000000
-52.520036 12.945026 197.000000
-60.022898 14.794315 196.000000
-67.525760 16.643605 195.000000
-60.022898 14.794315 198.000000
-67.525760 16.643605 197.000000
-60.022898 14.794315 200.000000
-67.525760 16.643605 199.000000
-75.028622 18.492894 198.000000
-67.525760 16.643605 201.000000
-75.028622 18.492894 200.000000
-67.525760 16.643605 203.000000
-75.028622 18.492894 202.000000
-67.525760 16.643605 205.000000
-75.028622 18.492894 204.000000
-82.531485 20.342183 203.000000
-75.028622 18.492894 206.000000
-82.531485 20.342183 205.000000
-75.028622 18.492894 208.000000
-82.531485 20.342183 207.000000
-90.034347 22.191473 206.000000
-82.531485 20.342183 209.000000
-90.034347 22.191473 208.000000
-82.531485 20.342183 211.000000
-90.034347 22.191473 210.000000
-97.537209 24.040762 209.000000
-90.034347 22.191473 212.000000
-97.537209 24.040762 211.000000
-90.034347 22.191473 214.000000
-97.537209 24.040762 213.000000
-101.288640 24.965407 213.000000
-97.537209 24.040762 215.000000
-105.040071 25.890052 214.000000
-97.537209 24.040762 217.000000
-105.040071 25.890052 216.000000
-97.537209 24.040762 219.000000
-108.791502 26.814696 216.000000
-101.288640 24.965407 220.000000
-108.791502 26.814696 218.000000
-116.294365 28.663986 217.000000
-108.791502 26.814696 220.000000
-116.294365 28.663986 219.000000
-108.791502 26.814696 222.000000
-116.294365 28.663986 221.000000
-108.791502 26.814696 224.000000
-116.294365 28.663986 223.000000
-123.797227 30.513275 222.000000
-116.294365 28.663986 225.000000
-123.797227 30.513275 224.000000
-116.294365 28.663986 227.000000
-123.797227 30.513275 226.000000
-131.300089 32.362565 225.000000
-123.797227 30.513275 228.000000
-131.300089 32.362565 227.000000
-123.797227 30.513275 230.000000
-131.300089 32.362565 229.000000
-123.797227 30.513275 232.000000
-131.300089 32.362565 231.000000
-123.797227 30.513275 234.000000
-131.300089 32.362565 233.000000
-123.797227 30.513275 236.000000
-131.300089 32.362565 235.000000
-123.797227 30.513275 238.000000
-131.300089 32.362565 237.000000
-123.797227 30.513275 240.000000
-138.802951 34.211854 237.000000
-146.305814 36.061143 236.000000
-138.802951 34.211854 239.000000
-146.305814 36.061143 238.000000
-142.554383 35.136499 240.000000
-150.057245 36.985788 239.000000
-142.554383 35.136499 242.000000
-150.057245 36.985788 241.000000
-153.808676 37.910433 241.000000
-150.057245 36.985788 243.000000
-157.560107 38.835078 242.000000
-150.057245 36.985788 245.000000
-157.560107 38.835078 244.000000
-165.062969 40.684367 243.000000
-157.560107 38.835078 246.000000
-165.062969 40.684367 245.000000
-157.560107 38.835078 248.000000
-165.062969 40.684367 247.000000
-172.565831 42.533656 246.000000
-180.068694 44.382946 245.000000
-172.565831 42.533656 248.000000
-180.068694 44.382946 247.000000
-183.820125 45.307590 247.000000
-176.317263 43.458301 250.000000
-183.820125 45.307590 249.000000
-191.322987 47.156880 248.000000
-183.820125 45.307590 251.000000
-191.322987 47.156880 250.000000
-183.820125 45.307590 253.000000
-191.322987 47.156880 252.000000
-183.820125 45.307590 255.000000
-191.322987 47.156880 254.000000
-198.825849 49.006169 253.000000
-191.322987 47.156880 256.000000
-198.825849 49.006169 255.000000
-191.322987 47.156880 258.000000
-198.825849 49.006169 257.000000
-191.322987 47.156880 260.000000
-198.825849 49.006169 259.000000
-206.328712 50.855459 258.000000
-198.825849 49.006169 261.000000
-206.328712 50.855459 260.000000
-198.825849 49.006169 263.000000
-206.328712 50.855459 262.000000
-198.825849 49.006169 265.000000
-206.328712 50.855459 264.000000
-213.831574 52.704748 262.000000
-206.328712 50.855459 266.000000
-213.831574 52.704748 264.000000
-206.328712 50.855459 268.000000
-213.831574 52.704748 266.000000
-206.328712 50.855459 270.000000
-213.831574 52.704748 268.000000
-221.334436 54.554037 267.000000
-213.831574 52.704748 270.000000
-221.334436 54.554037 269.000000
-213.831574 52.704748 272.000000
-221.334436 54.554037 271.000000
-213.831574 52.704748 274.000000
-221.334436 54.554037 273.000000
-228.837298 56.403327 272.000000
-221.334436 54.554037 275.000000
-228.837298 56.403327 274.000000
-221.334436 54.554037 277.000000
-228.837298 56.403327 276.000000
-221.334436 54.554037 279.000000
-228.837298 56.403327 278.000000
-221.334436 54.554037 281.000000
-228.837298 56.403327 280.000000
-236.340160 58.252616 279.000000
-228.837298 56.403327 282.000000
-236.340160 58.252616 281.000000
-228.837298 56.403327 284.000000
-236.340160 58.252616 283.000000
-228.837298 56.403327 286.000000
-236.340160 58.252616 285.000000
-228.837298 56.403327 288.000000
-236.340160 58.252616 287.000000
-243.843023 60.101906 286.000000
-236.340160 58.252616 289.000000
-243.843023 60.101906 288.000000
-236.340160 58.252616 291.000000
-243.843023 60.101906 290.000000
-236.340160 58.252616 293.000000
-243.843023 60.101906 292.000000
-236.340160 58.252616 295.000000
-243.843023 60.101906 294.000000
-236.340160 58.252616 297.000000
-243.843023 60.101906 296.000000
-251.345885 61.951195 295.000000
-243.843023 60.101906 298.000000
-251.345885 61.951195 297.000000
-243.843023 60.101906 300.000000
-251.345885 61.951195 299.000000
-243.843023 60.101906 302.000000
-251.345885 61.951195 301.000000
-243.843023 60.101906 304.000000
-251.345885 61.951195 303.000000
-243.843023 60.101906 306.000000
-251.345885 61.951195 305.000000
-243.843023 60.101906 308.000000
-251.345885 61.951195 307.000000
-243.843023 60.101906 310.000000
-251.345885 61.951195 309.000000
-243.843023 60.101906 312.000000
-251.345885 61.951195 311.000000
-243.843023 60.101906 314.000000
-251.345885 61.951195 313.000000
-243.843023 60.101906 316.000000
-251.345885 61.951195 315.000000
-243.843023 60.101906 318.000000
-251.345885 61.951195 317.000000
-243.843023 60.101906 320.000000
-251.345885 61.951195 319.000000
-243.843023 60.101906 322.000000
-251.345885 61.951195 321.000000
-243.843023 60.101906 324.000000
-251.345885 61.951195 323.000000
-243.843023 60.101906 326.000000
-251.345885 61.951195 325.000000
-243.843023 60.101906 328.000000
-251.345885 61.951195 327.000000
-243.843023 60.101906 330.000000
-240.091592 59.177261 332.000000
-247.594454 61.026550 331.000000
-240.091592 59.177261 334.000000
-247.594454 61.026550 333.000000
-240.091592 59.177261 336.000000
-236.340160 58.252616 338.000000
-243.843023 60.101906 337.000000
-236.340160 58.252616 340.000000
-228.837298 56.403327 343.000000
-236.340160 58.252616 342.000000
-228.837298 56.403327 345.000000
-183.820125 45.307590 359.000000
-191.322987 47.156880 358.000000
-183.820125 45.307590 361.000000
-187.571556 46.232235 361.000000
-180.068694 44.382946 364.000000
-187.571556 46.232235 363.000000
-180.068694 44.382946 366.000000
-187.571556 46.232235 365.000000
-180.068694 44.382946 368.000000
-172.565831 42.533656 371.000000
-180.068694 44.382946 370.000000
-97.537209 24.040762 394.000000
-176.317263 43.458301 373.000000
-105.040071 25.890052 394.000000
-112.542934 27.739341 392.000000
-120.045796 29.588630 391.000000
-112.542934 27.739341 394.000000
-123.797227 30.513275 392.000000
-131.300089 32.362565 391.000000
-138.802951 34.211854 390.000000
-146.305814 36.061143 389.000000
-138.802951 34.211854 392.000000
-150.057245 36.985788 390.000000
-157.560107 38.835078 389.000000
-165.062969 40.684367 388.000000
-172.565831 42.533656 387.000000
-165.062969 40.684367 390.000000
-176.317263 43.458301 388.000000
-183.820125 45.307590 387.000000
-191.322987 47.156880 386.000000
-198.825849 49.006169 385.000000
-191.322987 47.156880 388.000000
-202.577280 49.930814 386.000000
-210.080143 51.780103 385.000000
-217.583005 53.629393 383.000000
-225.085867 55.478682 382.000000
-217.583005 53.629393 385.000000
-228.837298 56.403327 383.000000
-236.340160 58.252616 382.000000
-243.843023 60.101906 381.000000
-236.340160 58.252616 384.000000
-247.594454 61.026550 382.000000
-255.097316 62.875840 381.000000
-262.600178 64.725129 380.000000
-270.103041 66.574419 379.000000
-262.600178 64.725129 382.000000
-273.854472 67.499063 380.000000
-281.357334 69.348353 379.000000
-288.860196 71.197642 378.000000
-296.363058 73.046932 377.000000
-288.860196 71.197642 380.000000
-300.114489 73.971576 378.000000
-307.617352 75.820866 377.000000
-315.120214 77.670155 376.000000
-322.623076 79.519444 374.000000
-315.120214 77.670155 378.000000
61.414631 -23.291497 148.000000
57.802006 -21.921409 149.000000
54.189380 -20.551321 150.000000
46.964130 -17.811145 149.000000
54.189380 -20.551321 152.000000
46.964130 -17.811145 151.000000
46.964130 -17.811145 153.000000
39.738879 -15.070969 152.000000
46.964130 -17.811145 155.000000
39.738879 -15.070969 154.000000
36.126254 -13.700881 155.000000
32.513628 -12.330792 156.000000
28.901003 -10.960704 157.000000
25.288378 -9.590616 158.000000
25.288378 -9.590616 160.000000
18.063127 -6.850440 159.000000
25.288378 -9.590616 162.000000
18.063127 -6.850440 161.000000
18.063127 -6.850440 163.000000
10.837876 -4.110264 162.000000
18.063127 -6.850440 165.000000
10.837876 -4.110264 164.000000
18.063127 -6.850440 167.000000
7.225251 -2.740176 165.000000
14.450501 -5.480352 168.000000
7.225251 -2.740176 167.000000
-0.000000 0.000000 166.000000
7.225251 -2.740176 169.000000
-0.000000 0.000000 168.000000
7.225251 -2.740176 171.000000
-0.000000 0.000000 170.000000
7.225251 -2.740176 173.000000
-0.000000 0.000000 172.000000
-7.225251 2.740176 171.000000
-0.000000 0.000000 174.000000
-7.225251 2.740176 173.000000
-0.000000 0.000000 176.000000
-7.225251 2.740176 175.000000
-0.000000 0.000000 178.000000
-7.225251 2.740176 177.000000
-0.000000 0.000000 180.000000
-10.837876 4.110264 178.000000
-18.063127 6.850440 177.000000
-10.837876 4.110264 180.000000
-18.063127 6.850440 179.000000
-10.837876 4.110264 182.000000
-18.063127 6.850440 181.000000
-25.288378 9.590616 180.000000
-18.063127 6.850440 183.000000
-25.288378 9.590616 182.000000
-18.063127 6.850440 185.000000
-25.288378 9.590616 184.000000
-32.513628 12.330792 183.000000
-25.288378 9.590616 186.000000
-32.513628 12.330792 185.000000
-25.288378 9.590616 188.000000
-32.513628 12.330792 187.000000
-39.738879 15.070969 186.000000
-32.513628 12.330792 189.000000
-39.738879 15.070969 188.000000
-32.513628 12.330792 191.000000
-39.738879 15.070969 190.000000
-46.964130 17.811145 189.000000
-39.738879 15.070969 192.000000
-46.964130 17.811145 191.000000
-39.738879 15.070969 194.000000
-46.964130 17.811145 193.000000
-54.189380 20.551321 192.000000
-46.964130 17.811145 195.000000
-54.189380 20.551321 194.000000
-46.964130 17.811145 197.000000
-54.189380 20.551321 196.000000
-46.964130 17.811145 199.000000
-54.189380 20.551321 198.000000
-61.414631 23.291497 197.000000
-54.189380 20.551321 200.000000
-61.414631 23.291497 199.000000
-54.189380 20.551321 202.000000
-61.414631 23.291497 201.000000
-68.639882 26.031673 200.000000
-61.414631 23.291497 203.000000
-68.639882 26.031673 202.000000
-61.414631 23.291497 205.000000
-68.639882 26.031673 204.000000
-61.414631 23.291497 207.000000
-68.639882 26.031673 206.000000
-75.865133 28.771849 205.000000
-68.639882 26.031673 208.000000
-75.865133 28.771849 207.000000
-68.639882 26.031673 210.000000
-75.865133 28.771849 209.000000
-68.639882 26.031673 212.000000
-75.865133 28.771849 211.000000
-83.090383 31.512025 210.000000
-75.865133 28.771849 213.000000
-83.090383 31.512025 212.000000
-75.865133 28.771849 215.000000
-83.090383 31.512025 214.000000
-90.315634 34.252201 213.000000
-83.090383 31.512025 216.000000
-90.315634 34.252201 215.000000
-83.090383 31.512025 218.000000
-90.315634 34.252201 217.000000
-83.090383 31.512025 220.000000
-90.315634 34.252201 219.000000
-97.540885 36.992377 218.000000
-90.315634 34.252201 221.000000
-97.540885 36.992377 220.000000
-90.315634 34.252201 223.000000
-97.540885 36.992377 222.000000
-90.315634 34.252201 225.000000
-97.540885 36.992377 224.000000
-104.766135 39.732554 222.000000
-97.540885 36.992377 226.000000
-104.766135 39.732554 224.000000
-97.540885 36.992377 228.000000
-104.766135 39.732554 226.000000
-97.540885 36.992377 230.000000
-104.766135 39.732554 228.000000
-111.991386 42.472730 227.000000
-104.766135 39.732554 230.000000
-111.991386 42.472730 229.000000
-104.766135 39.732554 232.000000
-111.991386 42.472730 231.000000
-104.766135 39.732554 234.000000
-111.991386 42.472730 233.000000
-119.216637 45.212906 232.000000
-111.991386 42.472730 235.000000
-119.216637 45.212906 234.000000
-111.991386 42.472730 237.000000
-119.216637 45.212906 236.000000
-111.991386 42.472730 239.000000
-119.216637 45.212906 238.000000
-126.441888 47.953082 237.000000
-119.216637 45.212906 240.000000
-126.441888 47.953082 239.000000
-119.216637 45.212906 242.000000
-111.991386 42.472730 245.000000
-119.216637 45.212906 244.000000
-126.441888 47.953082 243.000000
-119.216637 45.212906 246.000000
-111.991386 42.472730 249.000000
-119.216637 45.212906 248.000000
-111.991386 42.472730 251.000000
-119.216637 45.212906 250.000000
-126.441888 47.953082 249.000000
-133.667138 50.693258 248.000000
-126.441888 47.953082 251.000000
-133.667138 50.693258 250.000000
-130.054513 49.323170 252.000000
-137.279764 52.063346 251.000000
-130.054513 49.323170 254.000000
-137.279764 52.063346 253.000000
-140.892389 53.433434 253.000000
-133.667138 50.693258 256.000000
-140.892389 53.433434 255.000000
-144.505014 54.803522 255.000000
-137.279764 52.063346 258.000000
-144.505014 54.803522 257.000000
-148.117640 56.173610 257.000000
-144.505014 54.803522 259.000000
-151.730265 57.543698 258.000000
-148.117640 56.173610 260.000000
-155.342890 58.913786 259.000000
-162.568141 61.653962 258.000000
-155.342890 58.913786 261.000000
-162.568141 61.653962 260.000000
-155.342890 58.913786 263.000000
-162.568141 61.653962 262.000000
-169.793392 64.394139 261.000000
-162.568141 61.653962 264.000000
-169.793392 64.394139 263.000000
-162.568141 61.653962 266.000000
-169.793392 64.394139 265.000000
-162.568141 61.653962 268.000000
-169.793392 64.394139 267.000000
-177.018643 67.134315 266.000000
-169.793392 64.394139 269.000000
-177.018643 67.134315 268.000000
-169.793392 64.394139 271.000000
-177.018643 67.134315 270.000000
-169.793392 64.394139 273.000000
-177.018643 67.134315 272.000000
-180.631268 68.504403 272.000000
-173.406017 65.764227 275.000000
-180.631268 68.504403 274.000000
-187.856519 71.244579 273.000000
-180.631268 68.504403 276.000000
-187.856519 71.244579 275.000000
-180.631268 68.504403 278.000000
-187.856519 71.244579 277.000000
-180.631268 68.504403 280.000000
-187.856519 71.244579 279.000000
-180.631268 68.504403 282.000000
-187.856519 71.244579 281.000000
-180.631268 68.504403 284.000000
-187.856519 71.244579 283.000000
-195.081769 73.984755 282.000000
-187.856519 71.244579 285.000000
-195.081769 73.984755 284.000000
-187.856519 71.244579 287.000000
-195.081769 73.984755 286.000000
-187.856519 71.244579 289.000000
-195.081769 73.984755 288.000000
-187.856519 71.244579 291.000000
-195.081769 73.984755 290.000000
-202.307020 76.724931 289.000000
-195.081769 73.984755 292.000000
-202.307020 76.724931 291.000000
-195.081769 73.984755 294.000000
-202.307020 76.724931 293.000000
-195.081769 73.984755 296.000000
-202.307020 76.724931 295.000000
-195.081769 73.984755 298.000000
-202.307020 76.724931 297.000000
-209.532271 79.465107 295.000000
-202.307020 76.724931 299.000000
-209.532271 79.465107 297.000000
-202.307020 76.724931 301.000000
-209.532271 79.465107 299.000000
-202.307020 76.724931 303.000000
-209.532271 79.465107 301.000000
-202.307020 76.724931 305.000000
-209.532271 79.465107 303.000000
-202.307020 76.724931 307.000000
-209.532271 79.465107 305.000000
-216.757522 82.205283 304.000000
-209.532271 79.465107 307.000000
-216.757522 82.205283 306.000000
-209.532271 79.465107 309.000000
-216.757522 82.205283 308.000000
-209.532271 79.465107 311.000000
-216.757522 82.205283 310.000000
-209.532271 79.465107 313.000000
-216.757522 82.205283 312.000000
-209.532271 79.465107 315.000000
-216.757522 82.205283 314.000000
-209.532271 79.465107 317.000000
-216.757522 82.205283 316.000000
-209.532271 79.465107 319.000000
-216.757522 82.205283 318.000000
-209.532271 79.465107 321.000000
-216.757522 82.205283 320.000000
-209.532271 79.465107 323.000000
-216.757522 82.205283 322.000000
-209.532271 79.465107 325.000000
-216.757522 82.205283 324.000000
-209.532271 79.465107 327.000000
-216.757522 82.205283 326.000000
-209.532271 79.465107 329.000000
-216.757522 82.205283 328.000000
-209.532271 79.465107 331.000000
-216.757522 82.205283 330.000000
-209.532271 79.465107 333.000000
-216.757522 82.205283 332.000000
-209.532271 79.465107 335.000000
-216.757522 82.205283 334.000000
-209.532271 79.465107 337.000000
-216.757522 82.205283 336.000000
-209.532271 79.465107 339.000000
-216.757522 82.205283 338.000000
-209.532271 79.465107 341.000000
-202.307020 76.724931 345.000000
-209.532271 79.465107 343.000000
-202.307020 76.724931 347.000000
-209.532271 79.465107 345.000000
-202.307020 76.724931 349.000000
-209.532271 79.465107 347.000000
-202.307020 76.724931 351.000000
-209.532271 79.465107 349.000000
-202.307020 76.724931 353.000000
-195.081769 73.984755 356.000000
-202.307020 76.724931 355.000000
-195.081769 73.984755 358.000000
-187.856519 71.244579 361.000000
-220.370147 83.575371 352.000000
-213.144896 80.835195 355.000000
-220.370147 83.575371 354.000000
-213.144896 80.835195 357.000000
-93.928259 35.622289 393.000000
-101.153510 38.362466 392.000000
-93.928259 35.622289 395.000000
-101.153510 38.362466 394.000000
-108.378761 41.102642 392.000000
-115.604011 43.842818 391.000000
-122.829262 46.582994 390.000000
-115.604011 43.842818 393.000000
-122.829262 46.582994 392.000000
-130.054513 49.323170 391.000000
-137.279764 52.063346 390.000000
-144.505014 54.803522 389.000000
-151.730265 57.543698 388.000000
-144.505014 54.803522 391.000000
-155.342890 58.913786 389.000000
-162.568141 61.653962 388.000000
-169.793392 64.394139 387.000000
-162.568141 61.653962 390.000000
-173.406017 65.764227 388.000000
-180.631268 68.504403 387.000000
-187.856519 71.244579 386.000000
-195.081769 73.984755 385.000000
-187.856519 71.244579 388.000000
-198.694395 75.354843 386.000000
-205.919645 78.095019 384.000000
-213.144896 80.835195 383.000000
-220.370147 83.575371 382.000000
-213.144896 80.835195 385.000000
-227.595398 86.315547 382.000000
-234.820648 89.055724 381.000000
-227.595398 86.315547 384.000000
-238.433274 90.425812 382.000000
-245.658524 93.165988 381.000000
-252.883775 95.906164 380.000000
-260.109026 98.646340 379.000000
-252.883775 95.906164 382.000000
-263.721651 100.016428 380.000000
-270.946902 102.756604 379.000000
-278.172153 105.496780 378.000000
-270.946902 102.756604 381.000000
-281.784778 106.866868 379.000000
-289.010029 109.607044 378.000000
-296.235279 112.347220 377.000000
-303.460530 115.087397 376.000000
-296.235279 112.347220 379.000000
-307.073156 116.457485 377.000000
47.895951 -25.137734 150.000000
44.474812 -23.342182 151.000000
41.053673 -21.546629 152.000000
37.632533 -19.751077 153.000000
34.211394 -17.955524 154.000000
30.790254 -16.159972 155.000000
27.369115 -14.364420 156.000000
23.947976 -12.568867 157.000000
23.947976 -12.568867 159.000000
17.105697 -8.977762 158.000000
23.947976 -12.568867 161.000000
17.105697 -8.977762 160.000000
23.947976 -12.568867 163.000000
17.105697 -8.977762 162.000000
10.263418 -5.386657 161.000000
17.105697 -8.977762 164.000000
10.263418 -5.386657 163.000000
17.105697 -8.977762 166.000000
10.263418 -5.386657 165.000000
3.421139 -1.795552 164.000000
10.263418 -5.386657 167.000000
3.421139 -1.795552 166.000000
10.263418 -5.386657 169.000000
3.421139 -1.795552 168.000000
-3.421139 1.795552 167.000000
3.421139 -1.795552 170.000000
-3.421139 1.795552 169.000000
3.421139 -1.795552 172.000000
-3.421139 1.795552 171.000000
3.421139 -1.795552 174.000000
-3.421139 1.795552 173.000000
3.421139 -1.795552 176.000000
-3.421139 1.795552 175.000000
3.421139 -1.795552 178.000000
-3.421139 1.795552 177.000000
-10.263418 5.386657 176.000000
-3.421139 1.795552 179.000000
-10.263418 5.386657 178.000000
-17.105697 8.977762 177.000000
-10.263418 5.386657 180.000000
-17.105697 8.977762 179.000000
-10.263418 5.386657 182.000000
-17.105697 8.977762 181.000000
-23.947976 12.568867 180.000000
-17.105697 8.977762 183.000000
-23.947976 12.568867 182.000000
-17.105697 8.977762 185.000000
-23.947976 12.568867 184.000000
-30.790254 16.159972 183.000000
-23.947976 12.568867 186.000000
-30.790254 16.159972 185.000000
-23.947976 12.568867 188.000000
-30.790254 16.159972 187.000000
-37.632533 19.751077 186.000000
-30.790254 16.159972 189.000000
-37.632533 19.751077 188.000000
-30.790254 16.159972 191.000000
-37.632533 19.751077 190.000000
-30.790254 16.159972 193.000000
-37.632533 19.751077 192.000000
-44.474812 23.342182 191.000000
-37.632533 19.751077 194.000000
-44.474812 23.342182 193.000000
-37.632533 19.751077 196.000000
-44.474812 23.342182 195.000000
-37.632533 19.751077 198.000000
-44.474812 23.342182 197.000000
-51.317091 26.933287 196.000000
-44.474812 23.342182 199.000000
-51.317091 26.933287 198.000000
-44.474812 23.342182 201.000000
-51.317091 26.933287 200.000000
-58.159370 30.524391 199.000000
-51.317091 26.933287 202.000000
-58.159370 30.524391 201.000000
-51.317091 26.933287 204.000000
-58.159370 30.524391 203.000000
-51.317091 26.933287 206.000000
-58.159370 30.524391 205.000000
-65.001648 34.115496 204.000000
-58.159370 30.524391 207.000000
-65.001648 34.115496 206.000000
-58.159370 30.524391 209.000000
-65.001648 34.115496 208.000000
-58.159370 30.524391 211.000000
-65.001648 34.115496 210.000000
-71.843927 37.706601 209.000000
-65.001648 34.115496 212.000000
-71.843927 37.706601 211.000000
-65.001648 34.115496 214.000000
-71.843927 37.706601 213.000000
-65.001648 34.115496 216.000000
-71.843927 37.706601 215.000000
-78.686206 41.297706 214.000000
-71.843927 37.706601 217.000000
-78.686206 41.297706 216.000000
-71.843927 37.706601 219.000000
-78.686206 41.297706 218.000000
-71.843927 37.706601 221.000000
-78.686206 41.297706 220.000000
-85.528485 44.888811 219.000000
-78.686206 41.297706 222.000000
-85.528485 44.888811 221.000000
-78.686206 41.297706 224.000000
-85.528485 44.888811 223.000000
-78.686206 41.297706 226.000000
-85.528485 44.888811 225.000000
-92.370763 48.479916 224.000000
-85.528485 44.888811 227.000000
-92.370763 48.479916 226.000000
-85.528485 44.888811 229.000000
-92.370763 48.479916 228.000000
-85.528485 44.888811 231.000000
-92.370763 48.479916 230.000000
-85.528485 44.888811 233.000000
-92.370763 48.479916 232.000000
-99.213042 52.071021 230.000000
-92.370763 48.479916 234.000000
-99.213042 52.071021 232.000000
-92.370763 48.479916 236.000000
-99.213042 52.071021 234.000000
-92.370763 48.479916 238.000000
-99.213042 52.071021 236.000000
-92.370763 48.479916 240.000000
-99.213042 52.071021 238.000000
-106.055321 55.662126 237.000000
-99.213042 52.071021 240.000000
-106.055321 55.662126 239.000000
-99.213042 52.071021 242.000000
-106.055321 55.662126 241.000000
-99.213042 52.071021 244.000000
-106.055321 55.662126 243.000000
-99.213042 52.071021 246.000000
-106.055321 55.662126 245.000000
-99.213042 52.071021 248.000000
-106.055321 55.662126 247.000000
-112.897600 59.253230 246.000000
-106.055321 55.662126 249.000000
-112.897600 59.253230 248.000000
-106.055321 55.662126 251.000000
-112.897600 59.253230 250.000000
-106.055321 55.662126 253.000000
-112.897600 59.253230 252.000000
